# .PCD v.7 - Point Cloud Data file format
VERSION .7
FIELDS x y z _
SIZE 4 4 4 1
TYPE F F F U
COUNT 1 1 1 4
WIDTH 1206
HEIGHT 1
VIEWPOINT 0 0 0 1 0 0 0
POINTS 1206
DATA ascii
0.38272974,-10.0711,9.086477 0 0 128 63
0.31115,-5.6665826,-1.2028954 0 0 128 63
3.134461,9.0551,2.4388213 0 0 128 63
-2.8638792,-9.0551,-0.65722317 0 0 128 63
-4.5849934,-10.0711,-2.7035773 0 0 128 63
-0.31115,-3.7060525,-12.650079 0 0 128 63
-3.4402862,9.0551,0.63452995 0 0 128 63
3.9559596,-10.0711,11.453959 0 0 128 63
5.884816,-9.0551,1.089306 0 0 128 63
-0.31115,4.726353,15.082608 0 0 128 63
0.5981761,-10.0711,0.11915987 0 0 128 63
0.34120855,-8.568243,-0.6489474 0 0 128 63
-0.31115,-1.6577116,-12.157733 0 0 128 63
-5.052422,9.0551,-3.717491 0 0 128 63
-4.117089,10.0711,-9.769762 0 0 128 63
0.31115,7.7228026,-13.854806 0 0 128 63
-0.31115,4.7965045,8.759277 0 0 128 63
-4.6426105,-9.0551,5.6347003 0 0 128 63
-0.31115,-1.0750194,-5.1468606 0 0 128 63
7.231184,9.0551,8.103412 0 0 128 63
4.0456257,-9.0551,-1.1677091 0 0 128 63
6.8741984,-9.0551,6.1589456 0 0 128 63
-6.2428102,10.0711,-9.363893 0 0 128 63
-0.31115,-6.3443584,-5.5117717 0 0 128 63
7.4964833,9.0551,-8.666251 0 0 128 63
-3.8533053,-9.0551,-9.479206 0 0 128 63
-1.5958079,-10.0711,-1.061392 0 0 128 63
-0.31115,3.7901998,-13.073689 0 0 128 63
3.4935696,-9.0551,3.6423373 0 0 128 63
-7.110911,-9.0551,-5.006721 0 0 128 63
2.2660027,-10.0711,5.691674 0 0 128 63
3.0617735,-10.0711,7.583293 0 0 128 63
0.31115,6.412881,-12.24526 0 0 128 63
0.31115,-0.3642365,-0.53588074 0 0 128 63
-5.01526,9.0551,1.9957259 0 0 128 63
-4.626697,-9.0551,-8.291024 0 0 128 63
2.9144506,-9.0551,-9.489318 0 0 128 63
-1.7952762,-9.0551,3.9263422 0 0 128 63
-4.5277405,10.0711,-12.100497 0 0 128 63
0.31115,5.9195933,-8.261259 0 0 128 63
2.2708743,10.0711,0.70594865 0 0 128 63
-6.153247,-9.0551,14.196963 0 0 128 63
-0.31115,5.654298,3.674313 0 0 128 63
-0.31115,-6.304287,-5.8931255 0 0 128 63
-0.31115,6.8292255,-11.766952 0 0 128 63
-8.255,9.612513,8.272965 0 0 128 63
0.33372715,-8.530632,-5.64008 0 0 128 63
-0.31115,1.4325553,-10.919237 0 0 128 63
6.2450624,-10.0711,-1.6967179 0 0 128 63
3.9385917,9.0551,5.220914 0 0 128 63
-2.2288768,9.0551,-10.491946 0 0 128 63
0.31115,-7.8521857,0.831818 0 0 128 63
0.31115,1.0252982,9.787837 0 0 128 63
6.85229,-9.0551,5.0313787 0 0 128 63
0.31115,4.4088287,-14.3892145 0 0 128 63
-0.31115,1.1248975,13.137113 0 0 128 63
-0.8005086,-10.0711,13.1278105 0 0 128 63
-4.6962924,-10.0711,12.118496 0 0 128 63
1.5545719,-10.0711,-2.8404906 0 0 128 63
1.9734895,9.0551,-12.933621 0 0 128 63
-5.748405,-10.0711,-10.556605 0 0 128 63
-0.31115,-4.379121,13.658033 0 0 128 63
-4.5330715,-10.0711,9.003198 0 0 128 63
-0.40500015,-8.729046,-5.4532065 0 0 128 63
-2.0214965,9.0551,-0.71568084 0 0 128 63
-0.31115,0.19308041,14.149941 0 0 128 63
0.31115,-4.1894727,4.9958944 0 0 128 63
2.8231778,-9.0551,0.32677498 0 0 128 63
-5.569091,-9.0551,-13.592674 0 0 128 63
-0.31115,2.1342635,0.58204997 0 0 128 63
-5.217943,9.0551,0.68116456 0 0 128 63
3.27741,10.0711,0.62570715 0 0 128 63
0.31115,-8.019471,-2.6749125 0 0 128 63
-8.15603,-9.0551,-0.50794685 0 0 128 63
-0.31115,-7.144445,4.147396 0 0 128 63
-4.7972417,-10.0711,-9.091794 0 0 128 63
-5.8043566,-9.0551,-3.2848563 0 0 128 63
2.182395,-10.0711,5.996735 0 0 128 63
8.255,-9.677497,-11.108852 0 0 128 63
3.128317,9.0551,-14.203002 0 0 128 63
-0.31115,4.3364367,1.5865328 0 0 128 63
-0.31115,-7.492646,9.013367 0 0 128 63
0.31115,-7.1282206,-9.937362 0 0 128 63
3.990041,-9.0551,-5.7459846 0 0 128 63
-2.0277824,10.0711,-6.209693 0 0 128 63
2.3907087,10.0711,-7.5328703 0 0 128 63
-8.255,9.877031,-6.4203553 0 0 128 63
-0.20609301,10.0711,-14.639454 0 0 128 63
3.1134045,-10.0711,-14.520181 0 0 128 63
-6.46101,10.0711,1.5416735 0 0 128 63
0.8809192,-10.0711,-12.146329 0 0 128 63
-0.31115,-1.737221,-5.135173 0 0 128 63
-1.9407514,10.0711,-1.0790368 0 0 128 63
3.616433,9.0551,-9.451176 0 0 128 63
3.0483387,9.0551,13.589042 0 0 128 63
0.28174287,-10.0711,4.6916866 0 0 128 63
2.9274209,9.0551,-6.2042074 0 0 128 63
-0.31115,5.0705857,4.6114235 0 0 128 63
2.423271,-10.0711,5.1913824 0 0 128 63
-0.4115072,8.738785,0.2721111 0 0 128 63
-2.5320492,-10.0711,-11.214899 0 0 128 63
2.059279,10.0711,-7.2359967 0 0 128 63
1.2693596,10.0711,-8.532759 0 0 128 63
-5.9184866,-10.0711,-11.378464 0 0 128 63
-2.031627,10.0711,6.6774383 0 0 128 63
0.31115,8.164211,4.993485 0 0 128 63
-5.5530515,-10.0711,-10.1938715 0 0 128 63
7.513913,10.0711,8.59035 0 0 128 63
0.468928,9.375305,15.24 0 0 128 63
7.1953683,10.0711,12.0178175 0 0 128 63
-1.3271242,-10.0711,9.690871 0 0 128 63
0.31115,-5.3568125,-1.4378272 0 0 128 63
-0.3589242,8.657305,-1.812074 0 0 128 63
0.31115,4.7818055,-9.682025 0 0 128 63
0.89501697,-10.0711,-11.039803 0 0 128 63
0.5216054,-8.884008,-15.116706 0 0 128 63
2.9188304,-10.0711,-7.7277136 0 0 128 63
0.37838376,8.689213,10.056076 0 0 128 63
0.31115,4.254899,-1.583301 0 0 128 63
5.946066,-9.0551,-9.519569 0 0 128 63
-6.697108,9.0551,10.065994 0 0 128 63
-1.6245606,-9.0551,-2.1374843 0 0 128 63
-6.8448462,10.0711,6.046018 0 0 128 63
3.7723074,10.0711,-13.279506 0 0 128 63
-5.2830586,-10.0711,-3.3190117 0 0 128 63
0.6217698,10.0711,2.2246776 0 0 128 63
-0.31115,3.5830345,-12.748515 0 0 128 63
-3.0449421,-9.0551,3.1731915 0 0 128 63
-0.31115,6.4565587,4.2350917 0 0 128 63
0.13980246,-10.0711,14.110124 0 0 128 63
-0.31115,-6.4876204,-14.417537 0 0 128 63
-5.201161,10.0711,6.0949106 0 0 128 63
-7.6143494,-9.0551,-2.9458892 0 0 128 63
3.6582975,10.0711,-7.457592 0 0 128 63
0.44637126,10.0711,5.362725 0 0 128 63
-5.317422,-10.0711,-1.5457945 0 0 128 63
-6.3443475,9.0551,-13.841317 0 0 128 63
-1.4093686,-9.0551,-6.776004 0 0 128 63
0.50675684,9.6279545,-15.24 0 0 128 63
-8.255,-9.159582,-2.5107665 0 0 128 63
-8.255,9.787846,-5.3556404 0 0 128 63
1.9112688,10.0711,3.1473148 0 0 128 63
-0.32042503,-9.316304,15.24 0 0 128 63
-0.31115,0.4588721,2.9836211 0 0 128 63
0.31115,4.73828,-12.319751 0 0 128 63
-0.31115,8.123507,-8.438023 0 0 128 63
-8.255,9.425631,10.096335 0 0 128 63
6.708905,9.0551,-8.065364 0 0 128 63
0.31115,1.5483282,-6.2581396 0 0 128 63
-0.31115,8.00255,-9.325937 0 0 128 63
6.1060286,9.0551,14.795522 0 0 128 63
0.68257564,-8.991569,11.547278 0 0 128 63
0.5628611,8.911575,-8.592738 0 0 128 63
6.190912,9.0551,14.497718 0 0 128 63
0.31115,-4.1653185,13.135127 0 0 128 63
-0.31115,3.4751577,5.939195 0 0 128 63
-8.255,-9.725112,-3.4364784 0 0 128 63
-1.8704244,9.0551,-4.101182 0 0 128 63
4.9349036,-9.0551,-11.892492 0 0 128 63
0.31115,8.176127,12.607692 0 0 128 63
-5.2394724,9.0551,8.576798 0 0 128 63
4.501734,-10.0711,12.618008 0 0 128 63
7.479798,-9.0551,-3.1400144 0 0 128 63
-6.015684,-9.0551,6.6188664 0 0 128 63
-0.31115,2.723557,-2.937602 0 0 128 63
-0.31115,2.1725354,8.440741 0 0 128 63
6.361879,10.0711,0.70784044 0 0 128 63
0.31115,5.109528,-15.206584 0 0 128 63
-4.329572,9.0551,5.6116657 0 0 128 63
8.188541,-9.0551,-7.524696 0 0 128 63
0.31115,-5.17862,-13.884048 0 0 128 63
0.9946892,-10.0711,-5.258985 0 0 128 63
-1.1583519,-10.0711,14.228783 0 0 128 63
-0.31115,-7.395348,-10.868677 0 0 128 63
8.255,9.895598,1.7443422 0 0 128 63
-0.31115,-4.078554,-12.600754 0 0 128 63
-4.2682242,9.0551,9.277297 0 0 128 63
-0.31115,-7.7356877,-1.4081671 0 0 128 63
0.30883136,6.1583276,-15.24 0 0 128 63
-0.31115,-3.212903,-9.252951 0 0 128 63
4.7002077,-9.0551,-13.630696 0 0 128 63
-4.379484,9.0551,11.407851 0 0 128 63
-0.8824656,10.0711,1.542647 0 0 128 63
-8.128754,10.0711,-3.425635 0 0 128 63
0.31115,-1.0080619,-14.5176935 0 0 128 63
-4.5852556,10.0711,10.199688 0 0 128 63
-6.42186,10.0711,5.6450653 0 0 128 63
1.5877287,-10.0711,12.490924 0 0 128 63
-0.5647534,-10.0711,-8.673568 0 0 128 63
0.31115,8.219774,2.1546059 0 0 128 63
1.6622845,-10.0711,11.304656 0 0 128 63
4.1914864,9.0551,-11.050705 0 0 128 63
-2.976657,-10.0711,-13.29766 0 0 128 63
-0.31115,0.16371706,14.4348345 0 0 128 63
-2.3367193,-9.0551,-11.287389 0 0 128 63
-0.31115,-2.8963797,-6.1527777 0 0 128 63
-0.31115,-1.7360486,3.982998 0 0 128 63
2.494398,-9.0551,-14.583624 0 0 128 63
-7.975327,10.0711,-15.236027 0 0 128 63
0.31115,-1.6420537,-14.858521 0 0 128 63
-0.31115,-5.8235555,-14.350969 0 0 128 63
-1.2061043,10.0711,6.0022187 0 0 128 63
0.31115,1.8238138,10.718987 0 0 128 63
6.7217374,10.0711,-12.661751 0 0 128 63
5.9686084,10.0711,-9.78578 0 0 128 63
-5.9629054,-9.0551,12.570741 0 0 128 63
-0.31115,-0.76571625,6.8155785 0 0 128 63
2.7210093,-10.0711,-7.173553 0 0 128 63
6.2062016,9.0551,2.0258048 0 0 128 63
-6.4434443,-9.0551,4.3048525 0 0 128 63
4.718814,-10.0711,8.771753 0 0 128 63
0.31115,-4.2144337,11.283508 0 0 128 63
4.534889,9.0551,0.6276708 0 0 128 63
0.31115,0.018356603,5.164809 0 0 128 63
-0.31115,7.919907,8.542711 0 0 128 63
-1.0915729,-9.545464,-15.24 0 0 128 63
-0.31115,-8.253017,-12.893769 0 0 128 63
-3.2492588,-9.0551,11.243905 0 0 128 63
1.4157118,-10.0711,-4.8931565 0 0 128 63
-5.3971214,-9.0551,-10.281699 0 0 128 63
5.8482313,-9.0551,-8.320981 0 0 128 63
-1.2642567,9.0551,14.546139 0 0 128 63
-0.31115,-0.37397304,4.3900175 0 0 128 63
-1.7076485,9.0551,-0.2794123 0 0 128 63
-1.6276954,-9.0551,-0.38683864 0 0 128 63
0.87584317,-10.0711,12.707691 0 0 128 63
0.31115,-0.61219686,9.90919 0 0 128 63
-5.8956923,-9.0551,8.177981 0 0 128 63
-5.6649995,-9.0551,-13.745054 0 0 128 63
-0.31115,-2.611191,-11.125092 0 0 128 63
1.7060974,-10.017312,-15.24 0 0 128 63
-6.3129,10.0711,-7.250191 0 0 128 63
-7.3468575,-9.0551,-12.504357 0 0 128 63
7.315322,-9.0551,9.527665 0 0 128 63
2.8862681,9.0551,12.253205 0 0 128 63
-0.31115,7.2013316,0.7378727 0 0 128 63
-4.497788,-10.0711,-15.024218 0 0 128 63
-8.028424,9.0551,-6.0645723 0 0 128 63
-0.31115,7.4721427,9.064749 0 0 128 63
-0.31115,8.137254,-2.3547227 0 0 128 63
-5.680684,-9.0551,-12.253609 0 0 128 63
-1.7906603,-10.0711,-7.2146993 0 0 128 63
6.149786,-9.0551,10.015737 0 0 128 63
-0.31115,7.555189,15.132979 0 0 128 63
-0.31115,-6.455613,4.7059436 0 0 128 63
-0.31115,1.0135921,-2.7313423 0 0 128 63
0.31115,-2.350792,-6.943286 0 0 128 63
-0.31115,-3.3915575,-11.309631 0 0 128 63
-0.31115,-2.8507378,3.1592906 0 0 128 63
-4.64467,-9.0551,-6.7730813 0 0 128 63
-6.5210776,-10.0711,3.305001 0 0 128 63
-1.0980458,10.0711,-2.3881216 0 0 128 63
5.3874063,9.0551,-4.283991 0 0 128 63
0.31115,1.0791688,11.531182 0 0 128 63
0.31115,-2.8068917,-8.430601 0 0 128 63
5.0277047,-10.0711,-7.7502246 0 0 128 63
-0.31115,7.7982545,9.162047 0 0 128 63
4.8383255,-9.0551,-8.427345 0 0 128 63
-3.26544,10.0711,8.125894 0 0 128 63
-4.5937624,-10.0711,-14.805216 0 0 128 63
-0.34459993,-8.585293,4.6794677 0 0 128 63
-0.31115,-7.229471,7.2546215 0 0 128 63
-0.31115,3.9884942,4.556184 0 0 128 63
0.6579915,8.975142,14.396427 0 0 128 63
3.8251736,9.0551,-1.1423897 0 0 128 63
-4.5192823,10.0711,-10.504862 0 0 128 63
-6.1841326,-9.0551,5.402022 0 0 128 63
0.31115,-7.844959,2.7439356 0 0 128 63
0.2728812,-6.9887786,15.24 0 0 128 63
-8.255,-9.073643,-7.349838 0 0 128 63
-3.6695855,9.0551,5.8379054 0 0 128 63
-1.4435643,-9.0551,-0.019675227 0 0 128 63
0.26941156,-3.2345965,-15.24 0 0 128 63
5.9294105,-9.0551,-1.8226581 0 0 128 63
0.31115,8.298985,-7.054537 0 0 128 63
-8.255,9.920986,-13.442673 0 0 128 63
-0.31115,7.5698133,12.253938 0 0 128 63
-0.2067365,10.0711,12.208315 0 0 128 63
-3.1022613,10.0711,-0.93057024 0 0 128 63
8.103169,9.0551,9.469435 0 0 128 63
-7.390377,10.0711,-2.852166 0 0 128 63
7.543432,-9.0551,-10.772343 0 0 128 63
0.31718153,-8.447453,-0.21696988 0 0 128 63
-0.31115,-3.2832968,2.9305778 0 0 128 63
-3.4158819,9.0551,-0.030273823 0 0 128 63
0.31115,-2.7406871,11.231448 0 0 128 63
-0.31115,6.161784,-7.3027883 0 0 128 63
-0.31115,7.3734236,-7.0172186 0 0 128 63
-2.353265,9.0551,-2.5005374 0 0 128 63
0.037612144,-10.0711,7.4558954 0 0 128 63
-4.8371735,9.0551,-8.565703 0 0 128 63
1.2060837,-9.805856,15.24 0 0 128 63
-2.981348,-10.0711,0.23273271 0 0 128 63
-3.4677382,9.0551,4.9372454 0 0 128 63
0.31115,-2.9267733,2.6047025 0 0 128 63
0.44339386,10.0711,4.760026 0 0 128 63
-8.089054,-10.0711,5.2982755 0 0 128 63
4.342163,-10.0711,-5.6495075 0 0 128 63
8.255,-9.869573,3.931672 0 0 128 63
-0.31115,4.7897024,12.559727 0 0 128 63
-0.9723422,10.0711,-2.2073295 0 0 128 63
0.31115,3.0104337,10.193071 0 0 128 63
5.1910253,9.0551,7.5673585 0 0 128 63
0.31115,4.998001,-14.211346 0 0 128 63
-0.31115,-1.8506993,11.708601 0 0 128 63
-5.3433456,9.0551,-7.0567145 0 0 128 63
-3.013826,-10.0711,15.189149 0 0 128 63
5.5756626,-10.0711,14.498017 0 0 128 63
0.31115,0.25395682,8.965659 0 0 128 63
-0.31115,-1.0249509,4.813638 0 0 128 63
-5.588766,-10.0711,-6.539711 0 0 128 63
-4.8495603,-9.0551,13.344559 0 0 128 63
-4.169598,10.0711,-13.210927 0 0 128 63
-2.889101,-9.0551,6.87726 0 0 128 63
0.31115,0.8078845,10.468897 0 0 128 63
0.31115,4.530894,-13.672751 0 0 128 63
2.7021596,9.0551,5.112419 0 0 128 63
-0.31115,-0.660321,-14.174661 0 0 128 63
2.7646122,10.0711,6.4132366 0 0 128 63
-7.1701536,-10.0711,9.221414 0 0 128 63
-0.31115,6.4544005,11.953332 0 0 128 63
0.31115,7.7512827,4.423456 0 0 128 63
-0.31115,-0.9002646,-10.403211 0 0 128 63
2.4446406,-10.0711,6.371176 0 0 128 63
1.1832842,10.0711,-8.168677 0 0 128 63
-7.5842605,10.0711,-1.0500573 0 0 128 63
-7.0562477,-9.0551,5.838632 0 0 128 63
5.5996823,10.0711,7.8240294 0 0 128 63
-6.703615,10.0711,5.372554 0 0 128 63
-4.4259715,9.0551,-10.677914 0 0 128 63
0.31115,-7.1091976,-14.212587 0 0 128 63
4.49846,10.0711,9.035144 0 0 128 63
0.31115,-0.42333502,-5.5649285 0 0 128 63
3.4692032,-9.0551,-9.532702 0 0 128 63
-2.6452425,9.0551,11.316263 0 0 128 63
-0.06498478,9.249482,15.24 0 0 128 63
-6.3286567,-10.0711,-5.688288 0 0 128 63
-2.500642,10.0711,-7.65284 0 0 128 63
-1.5153108,9.0551,5.937286 0 0 128 63
4.997289,-10.0711,-2.2122338 0 0 128 63
-5.203738,-9.761137,-15.24 0 0 128 63
0.31115,7.2241206,13.36301 0 0 128 63
-8.237004,10.0711,-4.4180465 0 0 128 63
-0.31115,-5.6322937,9.243284 0 0 128 63
7.6850185,9.0551,-7.3960357 0 0 128 63
-4.726947,10.0711,-7.685867 0 0 128 63
0.31115,-4.4589167,10.042467 0 0 128 63
2.6115847,-9.0551,-2.0544155 0 0 128 63
-0.31115,1.930282,-6.830763 0 0 128 63
-1.5167646,9.0551,-12.989729 0 0 128 63
-6.3572745,-10.0711,4.7742944 0 0 128 63
0.2911336,4.226597,-15.24 0 0 128 63
-8.230102,-10.0711,11.747733 0 0 128 63
1.4467856,10.0711,1.0703105 0 0 128 63
-0.31115,1.5853378,-2.5369532 0 0 128 63
-0.31115,-4.257504,-0.030035753 0 0 128 63
-0.4716833,-8.828843,-4.8367386 0 0 128 63
0.31115,7.1689053,-15.169834 0 0 128 63
3.445716,9.0551,10.930353 0 0 128 63
-4.889641,10.0711,14.090572 0 0 128 63
4.7900476,-10.0711,-12.462742 0 0 128 63
0.31115,3.9681592,-9.289467 0 0 128 63
4.197182,-9.491326,-15.24 0 0 128 63
4.239104,10.0711,-14.330993 0 0 128 63
4.7890105,10.0711,-10.02021 0 0 128 63
-3.4421225,-10.0711,8.219431 0 0 128 63
-1.309526,9.0551,-3.9003232 0 0 128 63
0.31115,8.324046,9.306 0 0 128 63
0.31115,-1.621012,-12.149438 0 0 128 63
7.8245645,-10.0711,-2.2559478 0 0 128 63
-3.1566036,-9.0551,-1.3237336 0 0 128 63
-0.31115,2.4067092,9.156294 0 0 128 63
-3.8082755,-10.0711,-4.3744707 0 0 128 63
7.1711493,9.0551,-6.1595116 0 0 128 63
-1.0566577,9.0551,-8.0968075 0 0 128 63
-2.377994,9.0551,-11.313398 0 0 128 63
-0.10396837,10.0711,-7.1669006 0 0 128 63
-5.6960244,9.0551,4.456575 0 0 128 63
0.024729542,10.0711,-3.8665571 0 0 128 63
5.344389,10.0711,-5.283349 0 0 128 63
-3.7806127,-10.0711,-7.691623 0 0 128 63
4.511993,-10.0711,2.3035643 0 0 128 63
-3.0493126,-9.0551,15.133738 0 0 128 63
-2.7526925,-10.0711,7.325463 0 0 128 63
2.5447876,9.408922,15.24 0 0 128 63
-0.6369772,8.9611,-14.044325 0 0 128 63
0.25406802,10.0711,-2.6571426 0 0 128 63
-1.4683954,9.0551,6.815185 0 0 128 63
-0.07065847,-10.0711,-6.895772 0 0 128 63
0.31115,6.807814,-11.627648 0 0 128 63
-0.31115,-0.081674546,11.290946 0 0 128 63
-3.8889892,-10.0711,-8.444887 0 0 128 63
5.4719543,-9.0551,5.0903964 0 0 128 63
-0.31115,4.333425,2.2488937 0 0 128 63
2.8462858,10.0711,4.826592 0 0 128 63
-0.31115,4.168713,-5.0956817 0 0 128 63
-0.31115,3.9494736,8.175318 0 0 128 63
-4.003811,-9.0551,8.424753 0 0 128 63
4.333032,-10.0711,12.961358 0 0 128 63
8.120146,10.0711,-6.779074 0 0 128 63
-2.8806298,9.0551,-14.025025 0 0 128 63
-3.0072854,-10.0711,13.1473465 0 0 128 63
-4.2813616,-10.0711,-0.19238387 0 0 128 63
-0.31115,-3.015799,-10.06174 0 0 128 63
1.8898535,10.0711,8.030575 0 0 128 63
-0.31115,-4.161388,4.34081 0 0 128 63
-6.105775,-10.0711,9.860744 0 0 128 63
-0.31115,0.69002086,4.3525233 0 0 128 63
0.31115,-1.7219841,-12.843378 0 0 128 63
6.493653,9.0551,-0.48131123 0 0 128 63
3.6663287,-9.0551,10.243437 0 0 128 63
-0.31115,8.312489,12.090196 0 0 128 63
-0.31115,-2.8928819,-4.8197207 0 0 128 63
6.172572,-9.0551,14.200519 0 0 128 63
-0.31115,-5.043514,-14.847384 0 0 128 63
-1.2973365,10.0711,-2.9569552 0 0 128 63
0.31115,-1.9941463,-0.9245909 0 0 128 63
0.31115,7.536978,-9.698585 0 0 128 63
-0.31115,2.7135577,13.155841 0 0 128 63
0.31115,-2.5881424,-4.9575534 0 0 128 63
0.31115,-2.456768,-5.249892 0 0 128 63
-5.982185,9.0551,-14.547535 0 0 128 63
6.249537,-10.0711,-0.3010793 0 0 128 63
-0.5010887,-10.0711,8.105263 0 0 128 63
-6.6157403,-9.0551,-9.924565 0 0 128 63
-0.31115,-6.9395056,-10.355794 0 0 128 63
5.6272116,-9.0551,-9.438249 0 0 128 63
6.4836345,9.0551,4.066664 0 0 128 63
-7.588677,-9.0551,-13.988184 0 0 128 63
7.8691316,10.0711,-3.7031107 0 0 128 63
-3.715027,10.0711,-1.2871805 0 0 128 63
-0.31115,2.8944597,1.4835922 0 0 128 63
7.097109,10.0711,14.461845 0 0 128 63
-6.705511,-10.0711,-6.072599 0 0 128 63
0.31115,-3.1137323,0.101141736 0 0 128 63
-4.2859864,-9.0551,12.081329 0 0 128 63
5.012553,9.0551,-11.963048 0 0 128 63
-5.474507,10.0711,-7.2547817 0 0 128 63
0.68063873,-8.990274,8.215768 0 0 128 63
-0.31115,2.4899879,2.9891922 0 0 128 63
-0.31115,-1.0184677,-14.513268 0 0 128 63
-3.175389,10.0711,-5.5286436 0 0 128 63
-0.31115,-5.7242017,-1.0020373 0 0 128 63
-0.31115,7.450807,10.681936 0 0 128 63
-0.31115,8.092081,11.759543 0 0 128 63
6.299683,10.0711,11.221865 0 0 128 63
4.7127233,-10.0711,10.754657 0 0 128 63
-7.727661,-9.0551,-9.391977 0 0 128 63
7.3825355,10.0711,5.8117623 0 0 128 63
6.3135962,9.0551,10.237937 0 0 128 63
1.0452657,10.0711,-8.662523 0 0 128 63
-3.5224407,-10.0711,14.842432 0 0 128 63
3.5597365,-10.0711,11.439416 0 0 128 63
0.31115,-3.3593163,-5.1901536 0 0 128 63
-6.7803235,-9.0551,-5.246911 0 0 128 63
7.4423914,-9.0551,10.9562435 0 0 128 63
-4.056447,-10.0711,-1.5879337 0 0 128 63
-7.050337,10.0711,13.33024 0 0 128 63
-3.6394608,9.0551,-7.0130525 0 0 128 63
-6.654054,-10.0711,-0.5502694 0 0 128 63
1.5325971,-9.0551,9.834623 0 0 128 63
-7.173501,-9.464628,15.24 0 0 128 63
-6.6983976,-9.0551,13.891691 0 0 128 63
-0.31115,6.9239545,-10.917611 0 0 128 63
-0.77404517,-9.020277,-13.072666 0 0 128 63
6.995203,-10.0711,-2.3420982 0 0 128 63
4.241624,9.0551,-3.4487243 0 0 128 63
-0.31115,1.3252664,6.026624 0 0 128 63
0.31115,1.4307014,15.005486 0 0 128 63
0.7956113,9.024567,4.665304 0 0 128 63
-0.31115,1.1065538,1.4974163 0 0 128 63
-0.31115,-0.88971263,7.4908433 0 0 128 63
-1.9368511,10.0711,10.414094 0 0 128 63
-2.4843607,-9.0551,-7.310755 0 0 128 63
-5.139226,-9.0551,-8.845455 0 0 128 63
-2.1333494,10.0711,14.017541 0 0 128 63
1.2219139,-10.0711,4.317678 0 0 128 63
0.5948028,-8.932919,9.226349 0 0 128 63
2.6840193,9.0551,-5.227188 0 0 128 63
-0.31115,2.338727,-1.3859236 0 0 128 63
0.31115,-4.6529174,3.7995348 0 0 128 63
8.255,9.181117,-2.0446115 0 0 128 63
-0.31115,-2.1013107,-13.332023 0 0 128 63
-2.4838498,-10.0711,-0.6160971 0 0 128 63
-0.31115,4.9803376,8.405228 0 0 128 63
7.936386,9.0551,-13.584953 0 0 128 63
5.549359,10.0711,12.057791 0 0 128 63
0.80275947,-9.025989,2.8596935 0 0 128 63
0.31115,-1.407044,-1.364345 0 0 128 63
1.8901584,-9.0551,0.64263767 0 0 128 63
-1.0344757,-9.0551,9.618571 0 0 128 63
-6.4958878,10.0711,1.8760942 0 0 128 63
-3.4536154,-9.0551,-3.647903 0 0 128 63
6.521109,10.0711,-6.0862255 0 0 128 63
7.1883225,9.0551,-12.318775 0 0 128 63
0.6826951,-8.991649,-0.85774505 0 0 128 63
0.31115,0.99335444,7.4176364 0 0 128 63
6.9895134,10.0711,-1.9193834 0 0 128 63
0.31115,7.4198666,-13.857841 0 0 128 63
0.31115,4.194097,7.912129 0 0 128 63
4.6234336,-10.0711,-4.1228266 0 0 128 63
3.8157535,10.0711,-7.0969996 0 0 128 63
-0.31115,2.3880851,-9.145004 0 0 128 63
0.31115,6.804089,0.108768225 0 0 128 63
-0.31115,-2.204868,-2.720675 0 0 128 63
-0.31115,-2.0860167,-1.5118922 0 0 128 63
-8.255,-9.074945,-9.993729 0 0 128 63
-7.388955,-9.0551,-9.866082 0 0 128 63
0.31115,-3.692398,-4.030043 0 0 128 63
1.7209256,-10.0711,-0.45512107 0 0 128 63
6.884482,10.0711,-8.316668 0 0 128 63
0.56100065,-9.379347,-15.24 0 0 128 63
1.765888,-9.0551,-4.7590637 0 0 128 63
-0.31115,-5.457288,9.135018 0 0 128 63
0.31115,-7.785136,10.809024 0 0 128 63
-0.31115,-5.0704794,0.25908014 0 0 128 63
-5.8783917,10.0711,6.665354 0 0 128 63
-0.39993408,-8.721464,-8.933631 0 0 128 63
-4.604812,-9.0551,2.65489 0 0 128 63
3.483564,10.0711,5.79082 0 0 128 63
8.255,-9.273155,-2.196742 0 0 128 63
2.2747111,-9.0551,-1.9770494 0 0 128 63
5.1954594,10.0711,-3.5227828 0 0 128 63
7.800423,-10.0711,6.061819 0 0 128 63
-0.31115,-3.5502112,-14.207687 0 0 128 63
-0.31115,5.0678563,-9.846645 0 0 128 63
-0.31115,-7.9994154,10.49036 0 0 128 63
1.2587786,-9.0551,4.944799 0 0 128 63
-0.31115,-0.7517022,-3.7721996 0 0 128 63
-0.31115,2.4326584,-6.865136 0 0 128 63
-2.2210839,10.0711,-7.9378705 0 0 128 63
-1.3689871,-9.0551,12.3499975 0 0 128 63
4.774472,-10.0711,8.757084 0 0 128 63
5.186269,10.0711,15.235763 0 0 128 63
-1.3514328,-9.0551,4.959786 0 0 128 63
-0.31115,4.7004647,-8.530224 0 0 128 63
-8.255,9.965691,-11.750803 0 0 128 63
-0.54973,-8.9028015,14.183856 0 0 128 63
-1.7187909,-10.0711,-0.17077819 0 0 128 63
-7.663689,10.0711,-7.5593753 0 0 128 63
-4.9263735,9.0551,-9.873583 0 0 128 63
0.31115,6.2465625,-9.638891 0 0 128 63
1.3597125,10.0711,-3.825987 0 0 128 63
-0.31115,7.635828,-14.122678 0 0 128 63
-5.171197,9.0551,11.033207 0 0 128 63
-8.255,9.848819,8.997718 0 0 128 63
-0.31115,5.8374853,13.940644 0 0 128 63
-0.5878074,10.0711,-12.399073 0 0 128 63
2.6553311,10.0711,1.2810788 0 0 128 63
7.8114934,-9.0551,-9.071836 0 0 128 63
-2.4340537,-10.0711,5.7010074 0 0 128 63
0.31115,-0.5220898,-5.1763754 0 0 128 63
-0.8671726,-10.0711,-4.7404428 0 0 128 63
8.255,9.772643,10.445693 0 0 128 63
-5.025925,-10.0711,8.737269 0 0 128 63
0.31115,3.867002,4.5959315 0 0 128 63
-2.675569,-9.0551,8.5085 0 0 128 63
-4.983814,10.0711,-7.5263486 0 0 128 63
-8.255,-9.576707,5.6870914 0 0 128 63
0.31115,-6.444854,3.946706 0 0 128 63
-3.923233,-9.0551,1.8431993 0 0 128 63
-0.31115,1.7950346,-10.580921 0 0 128 63
-0.9182814,9.048966,7.2391734 0 0 128 63
0.31115,5.3577065,3.6244202 0 0 128 63
-7.1776776,9.0551,12.546321 0 0 128 63
7.9734063,-10.0711,-14.94352 0 0 128 63
7.0139265,-10.0711,0.9027991 0 0 128 63
-7.201642,-9.0551,11.317634 0 0 128 63
-0.31115,1.1901314,0.24966067 0 0 128 63
2.8066726,10.0711,15.182515 0 0 128 63
7.484471,10.0711,10.05831 0 0 128 63
-0.4511134,-8.7980585,14.126294 0 0 128 63
-0.31115,-3.548507,-4.144048 0 0 128 63
1.2599642,-10.0711,14.804803 0 0 128 63
-0.83367723,-9.032138,-12.20976 0 0 128 63
2.6218486,9.0551,-4.506786 0 0 128 63
-7.93653,-9.0551,6.6293993 0 0 128 63
2.7587094,9.0551,3.5663824 0 0 128 63
4.7646117,9.0551,5.8455234 0 0 128 63
0.5230233,10.0711,-14.327385 0 0 128 63
0.31115,-4.6917505,-14.874094 0 0 128 63
1.5275465,10.0711,-9.164269 0 0 128 63
-0.31115,-2.552871,3.6400485 0 0 128 63
-5.3986077,-9.0551,-8.642028 0 0 128 63
-7.013832,10.0711,-3.9338121 0 0 128 63
-7.408229,-9.0551,10.384253 0 0 128 63
-4.175817,-10.0711,-2.2428682 0 0 128 63
-0.85936,-10.0711,4.340236 0 0 128 63
1.0130191,-10.0711,-7.1973786 0 0 128 63
4.591274,9.0551,-5.79961 0 0 128 63
-0.31115,-1.723727,5.266675 0 0 128 63
0.31115,-6.4813576,-13.016603 0 0 128 63
0.31115,-1.3400048,2.2168381 0 0 128 63
-0.31115,-1.9955899,-2.204059 0 0 128 63
-6.3296123,9.0551,0.65898854 0 0 128 63
6.740994,9.0551,11.318273 0 0 128 63
-8.255,-9.551833,2.9747617 0 0 128 63
5.7636204,-9.0551,13.006179 0 0 128 63
-4.8496757,9.0551,3.8242238 0 0 128 63
0.31115,1.1122869,-1.2494397 0 0 128 63
-1.625309,10.0711,5.5582786 0 0 128 63
-3.1574576,9.230498,15.24 0 0 128 63
0.09553097,-10.0711,11.097429 0 0 128 63
-6.5282717,9.0551,4.0376186 0 0 128 63
0.7952776,-9.024501,-1.6792753 0 0 128 63
4.804684,-9.0551,0.45406595 0 0 128 63
0.31115,1.2275846,10.727088 0 0 128 63
-0.31115,-0.85982084,-3.1220841 0 0 128 63
-4.617881,-10.0711,-11.990072 0 0 128 63
0.31115,3.2430656,-14.685962 0 0 128 63
-7.816192,-10.0711,15.176623 0 0 128 63
-0.31115,6.68819,3.6099255 0 0 128 63
-5.793476,-10.0711,13.653754 0 0 128 63
-6.0852494,-10.0711,12.2957115 0 0 128 63
-2.345617,-10.0711,-8.769233 0 0 128 63
-0.31115,5.712395,4.3354278 0 0 128 63
0.31115,6.4913063,-2.715238 0 0 128 63
8.255,9.896905,-7.203956 0 0 128 63
8.255,-9.152088,11.9871025 0 0 128 63
-0.31115,4.1694765,3.2563477 0 0 128 63
-6.37608,-9.0551,12.365563 0 0 128 63
-3.5493724,-9.0551,1.2041188 0 0 128 63
-0.31115,-8.127299,-8.903205 0 0 128 63
-8.255,9.666863,-2.0788717 0 0 128 63
0.31115,5.2342844,-14.945915 0 0 128 63
-2.4922035,-10.0711,-10.978955 0 0 128 63
-0.31115,0.022153048,15.155747 0 0 128 63
-5.1166983,10.0711,-11.758419 0 0 128 63
-0.7089495,-10.0711,-11.828667 0 0 128 63
1.2303311,-9.0551,2.6128237 0 0 128 63
0.31115,5.149105,-9.088454 0 0 128 63
0.31115,2.2219143,-9.995662 0 0 128 63
-0.31115,-5.137315,-13.730526 0 0 128 63
-1.5922202,-9.0551,-11.356465 0 0 128 63
0.31115,-2.9574943,-5.5892205 0 0 128 63
-7.2259364,9.0551,14.899785 0 0 128 63
-1.9607037,-10.0711,-1.5061014 0 0 128 63
0.31115,-6.181836,-10.409726 0 0 128 63
-0.31115,1.8691069,-9.602132 0 0 128 63
0.58022344,-8.923177,0.30401635 0 0 128 63
0.31115,-6.704348,-12.236054 0 0 128 63
-2.6785932,10.0711,5.9078336 0 0 128 63
-6.122251,-10.0711,3.7607033 0 0 128 63
-0.31115,-0.5188258,-8.635636 0 0 128 63
0.31115,4.4067183,9.387368 0 0 128 63
-7.214365,-9.0551,-0.25328624 0 0 128 63
-1.9675376,-9.0551,0.30962652 0 0 128 63
7.0781965,-10.0711,-13.108006 0 0 128 63
2.592359,10.0711,8.793828 0 0 128 63
1.2649456,10.0711,11.750322 0 0 128 63
-2.3945014,-10.0711,9.665025 0 0 128 63
5.941537,9.0551,11.194013 0 0 128 63
0.31115,4.5089974,7.3768897 0 0 128 63
-1.3763088,-10.0711,10.881831 0 0 128 63
-3.5917096,-9.987714,15.24 0 0 128 63
0.7520432,-10.0711,-10.273461 0 0 128 63
7.161061,9.0551,3.8783135 0 0 128 63
-1.4157549,-10.0711,-10.361624 0 0 128 63
-0.31115,-6.736336,-6.565405 0 0 128 63
-0.31115,0.8710443,12.557728 0 0 128 63
-8.255,9.448241,10.292636 0 0 128 63
-8.148083,-9.0551,13.783235 0 0 128 63
6.3567266,10.0711,4.309708 0 0 128 63
0.31115,4.49509,-4.772132 0 0 128 63
-4.246928,9.0551,-14.068071 0 0 128 63
-0.51048535,8.876577,2.5777152 0 0 128 63
0.052315157,7.848596,15.24 0 0 128 63
-0.31115,-0.7292496,12.471283 0 0 128 63
-8.255,9.756841,-12.366004 0 0 128 63
-5.598994,-10.0711,2.1909976 0 0 128 63
-0.31115,4.515645,-1.1683841 0 0 128 63
-0.31115,1.8108006,5.9187164 0 0 128 63
0.31115,-0.9149156,7.8664017 0 0 128 63
-5.2891774,9.0551,-8.9367485 0 0 128 63
0.31115,0.8718692,-0.82069206 0 0 128 63
-3.0840323,10.0711,-5.394274 0 0 128 63
-0.31115,2.2632937,-0.97024184 0 0 128 63
-0.31115,-5.4681664,9.974279 0 0 128 63
-1.1774726,9.0551,7.3434925 0 0 128 63
-1.7393297,9.0551,3.83507 0 0 128 63
1.3313657,10.0711,0.83067745 0 0 128 63
-0.31115,6.05957,-10.082459 0 0 128 63
-1.7177473,10.0711,12.3037815 0 0 128 63
7.702895,-10.0711,-5.606953 0 0 128 63
-8.255,9.276796,13.509773 0 0 128 63
3.8168414,-10.0711,7.1770673 0 0 128 63
-0.31115,7.062447,-12.34366 0 0 128 63
-5.4881334,-10.0711,5.103639 0 0 128 63
-0.31115,-0.06549115,-2.8649402 0 0 128 63
-0.25937206,-8.836854,15.24 0 0 128 63
-0.4290175,-8.76499,11.694738 0 0 128 63
5.205298,9.2113695,15.24 0 0 128 63
6.4105234,-9.0551,-14.120603 0 0 128 63
-2.511242,-9.0551,-11.752483 0 0 128 63
0.31115,-4.3949885,12.435251 0 0 128 63
-5.490669,-10.0711,-13.928714 0 0 128 63
3.9666076,10.0711,-6.119179 0 0 128 63
-0.31115,-6.0759277,-3.8310492 0 0 128 63
-0.31115,-6.407962,-5.0236506 0 0 128 63
8.255,9.527475,4.564508 0 0 128 63
-3.074814,-10.0711,-5.9384527 0 0 128 63
-1.3869857,-9.0551,2.3420684 0 0 128 63
-4.5463915,-9.0551,-9.519206 0 0 128 63
-6.828971,-10.0711,-2.6801484 0 0 128 63
8.255,9.780046,14.282033 0 0 128 63
-0.31115,2.482908,6.8574677 0 0 128 63
0.31115,3.330528,4.2275944 0 0 128 63
5.215757,9.0551,7.9951973 0 0 128 63
1.237654,10.0711,10.218672 0 0 128 63
-4.4914746,-10.0711,-10.21816 0 0 128 63
-5.4327493,-10.0711,1.0128602 0 0 128 63
-0.12092958,10.0711,-13.0967865 0 0 128 63
-6.1203127,10.0711,0.9993771 0 0 128 63
6.2833557,-9.0551,-6.791002 0 0 128 63
-2.7696514,10.0711,-14.008262 0 0 128 63
-0.31115,2.0418544,-9.014534 0 0 128 63
0.31115,-7.84146,-5.0782137 0 0 128 63
-0.7082851,10.0711,3.51929 0 0 128 63
-1.1655986,-10.0711,4.484268 0 0 128 63
-0.31115,8.210254,-10.826895 0 0 128 63
-0.31115,-3.5454988,13.036503 0 0 128 63
1.5716331,9.0551,1.8694105 0 0 128 63
-6.636965,10.0711,0.7415244 0 0 128 63
0.31115,6.785135,-5.851794 0 0 128 63
-0.31115,5.442524,-8.1105995 0 0 128 63
0.31115,4.387141,6.3031335 0 0 128 63
4.7945414,9.0551,-6.0832 0 0 128 63
0.31115,2.283734,13.512544 0 0 128 63
-5.706924,9.0551,-12.69781 0 0 128 63
5.6498165,-9.0551,-1.7287202 0 0 128 63
0.31115,-0.15800114,4.832695 0 0 128 63
7.0562215,-10.0711,9.4432745 0 0 128 63
6.458238,9.0551,-15.201093 0 0 128 63
-1.3416725,10.0711,-6.0803423 0 0 128 63
4.617825,9.0551,5.6375732 0 0 128 63
0.31115,-8.358678,11.709645 0 0 128 63
4.1942353,-10.0711,-7.699959 0 0 128 63
0.31115,3.8689184,3.4844897 0 0 128 63
6.238316,-9.665956,15.24 0 0 128 63
5.807308,9.0551,6.5880976 0 0 128 63
3.3032153,-9.0551,10.168871 0 0 128 63
4.217739,-10.0711,12.81563 0 0 128 63
-2.2162077,-9.0551,7.811074 0 0 128 63
0.31115,0.12086392,2.8583217 0 0 128 63
6.199303,10.0711,-0.09589873 0 0 128 63
0.31115,-6.8425446,7.482433 0 0 128 63
-0.31115,3.5799239,2.3498127 0 0 128 63
-7.447531,-10.0711,11.005151 0 0 128 63
-0.31115,7.878321,-14.518059 0 0 128 63
-3.5032446,-10.0711,-1.177386 0 0 128 63
0.29263014,-10.0711,-11.821932 0 0 128 63
-0.31115,-2.3662543,3.031256 0 0 128 63
-5.223512,-9.0551,9.606907 0 0 128 63
-7.1043334,-10.0711,-1.5511198 0 0 128 63
2.8717542,-10.0711,2.2199712 0 0 128 63
5.6892977,9.0551,5.433345 0 0 128 63
-3.6405072,-10.0711,3.9337597 0 0 128 63
-7.212167,9.0551,5.717142 0 0 128 63
4.5796165,-9.0551,6.9662733 0 0 128 63
-0.37967876,8.691151,3.8761506 0 0 128 63
1.9182929,9.0551,-9.973085 0 0 128 63
-3.1234004,10.0711,-5.1687117 0 0 128 63
-0.31115,-1.3244369,-1.4985429 0 0 128 63
0.81589425,-9.028601,-7.710733 0 0 128 63
-5.389011,10.0711,-14.936176 0 0 128 63
-3.691399,-10.0711,8.903513 0 0 128 63
-0.45755535,-8.807699,-9.679734 0 0 128 63
-0.31115,-7.525906,-0.8373754 0 0 128 63
-5.8527994,-9.0551,-6.6565113 0 0 128 63
0.31115,6.955375,-14.799819 0 0 128 63
-7.2900667,10.0711,-2.3963056 0 0 128 63
-0.31115,-3.8513489,-11.287591 0 0 128 63
0.31115,-2.919041,-12.61667 0 0 128 63
0.31115,6.159182,-4.2746296 0 0 128 63
-0.31115,-1.2067844,-10.803416 0 0 128 63
1.1495249,10.0711,-10.738627 0 0 128 63
1.3195024,10.0711,8.081142 0 0 128 63
7.138989,-10.0711,-13.424444 0 0 128 63
-0.33046657,-8.51424,-8.735598 0 0 128 63
-0.31115,1.6187637,-13.968633 0 0 128 63
8.255,-9.676242,14.179717 0 0 128 63
-0.31115,3.7251112,-0.30149686 0 0 128 63
-2.5939486,-10.0711,-5.6535635 0 0 128 63
8.1397085,9.0551,4.1091757 0 0 128 63
-1.8782256,-10.0711,-8.754542 0 0 128 63
5.245524,10.0711,-8.934812 0 0 128 63
-6.6359076,9.0551,10.261379 0 0 128 63
-5.1063952,-9.0551,5.942887 0 0 128 63
-0.31115,-0.68022805,-2.0468502 0 0 128 63
-4.65357,10.0711,5.692338 0 0 128 63
6.0592394,9.0551,-13.184361 0 0 128 63
-0.45451653,-8.803152,-9.230176 0 0 128 63
-5.6134095,-10.0711,0.8491369 0 0 128 63
-6.3125505,9.0551,5.680323 0 0 128 63
-0.31115,6.8573437,12.357085 0 0 128 63
-7.824692,-9.0551,-7.9065776 0 0 128 63
0.31115,2.559846,5.955139 0 0 128 63
7.5584474,9.0551,-3.229106 0 0 128 63
-3.7646692,-9.0551,7.9714036 0 0 128 63
8.135632,9.0551,11.9064245 0 0 128 63
5.891865,-10.0711,6.972394 0 0 128 63
-5.403,9.0551,2.5206633 0 0 128 63
4.031392,-10.0711,-13.695806 0 0 128 63
4.8179135,10.0711,13.54895 0 0 128 63
1.8892204,-10.0711,-1.0404255 0 0 128 63
0.31115,4.424251,9.525194 0 0 128 63
7.4247746,-9.0551,-6.6312203 0 0 128 63
-0.26096597,-10.0711,-8.122667 0 0 128 63
-6.7256,10.0711,5.769218 0 0 128 63
4.037525,-10.0711,14.547079 0 0 128 63
-6.3235445,10.0711,-1.9839216 0 0 128 63
0.31115,-5.7925744,-4.824229 0 0 128 63
-8.255,-9.224712,1.243779 0 0 128 63
-4.1674867,9.0551,0.85812414 0 0 128 63
-0.31115,4.109503,4.035184 0 0 128 63
8.0079365,-9.0551,-14.211571 0 0 128 63
-7.340594,9.0551,-8.549651 0 0 128 63
5.307385,-9.0551,-11.137353 0 0 128 63
-7.2337165,10.0711,5.7283273 0 0 128 63
0.31115,6.544556,-6.367504 0 0 128 63
-5.2722373,10.0711,-0.20809124 0 0 128 63
-3.8931334,9.0551,7.6348114 0 0 128 63
0.57890785,10.0711,13.288637 0 0 128 63
-6.5690684,10.0711,1.9827255 0 0 128 63
4.697768,-10.0711,-2.3516457 0 0 128 63
-1.3359634,-9.149116,15.24 0 0 128 63
7.9598074,10.0711,2.920399 0 0 128 63
1.6742059,-9.0551,0.67519677 0 0 128 63
0.9242634,-10.0711,8.132206 0 0 128 63
0.31115,4.4205894,-13.027927 0 0 128 63
-0.31115,-4.1285977,9.167944 0 0 128 63
1.969713,-9.0551,1.4642953 0 0 128 63
0.31115,-4.715019,13.822186 0 0 128 63
5.995963,9.0551,4.4638643 0 0 128 63
5.554009,-10.0711,6.976991 0 0 128 63
0.31115,-7.60004,10.732889 0 0 128 63
-0.31115,-5.8778334,-12.958713 0 0 128 63
-2.236476,-9.0551,-4.247906 0 0 128 63
-0.31115,-7.4968715,-8.832206 0 0 128 63
-0.68057,10.0711,4.859935 0 0 128 63
-2.032938,-10.0711,8.001829 0 0 128 63
-3.8707461,10.0711,-5.9549794 0 0 128 63
-1.0685515,-9.0551,-5.719178 0 0 128 63
0.31115,-4.2352333,14.561495 0 0 128 63
-0.31115,1.7105846,1.2762749 0 0 128 63
-0.31115,5.3600545,1.4253128 0 0 128 63
0.31115,2.4692354,-3.3567936 0 0 128 63
5.2361526,9.0551,-0.91340184 0 0 128 63
-0.31115,3.7408867,11.972426 0 0 128 63
0.038760334,-0.8019574,-15.24 0 0 128 63
-7.685535,-9.0551,-8.946641 0 0 128 63
5.086679,10.0711,-5.7659736 0 0 128 63
2.4750957,-10.0711,-5.236181 0 0 128 63
-2.0441468,-9.0551,14.26742 0 0 128 63
-6.7299237,9.0551,-13.887404 0 0 128 63
0.31115,-7.2256503,8.77077 0 0 128 63
3.1669524,-10.0711,-8.44441 0 0 128 63
3.0380552,9.0551,-4.9636993 0 0 128 63
-0.31115,4.635942,2.4145627 0 0 128 63
0.31115,6.7858334,-2.464885 0 0 128 63
-6.7777753,-9.0551,0.98197526 0 0 128 63
0.31115,-5.437646,-5.817152 0 0 128 63
-0.37103304,8.678211,-0.7595637 0 0 128 63
-2.2437725,-10.0711,-5.2289977 0 0 128 63
-0.31115,-7.983145,-6.4936757 0 0 128 63
6.3896947,9.0551,12.755498 0 0 128 63
-3.0946362,10.0711,2.439783 0 0 128 63
-0.31115,-4.9032917,-1.3901874 0 0 128 63
3.4350033,9.0551,-5.3198814 0 0 128 63
-3.1073022,-10.0711,10.981536 0 0 128 63
0.15726386,10.0711,-0.2432229 0 0 128 63
-4.851656,-9.0551,3.9018748 0 0 128 63
-1.0960311,10.0711,-11.4400015 0 0 128 63
0.31115,2.5673199,12.202138 0 0 128 63
0.31115,-6.3451095,-7.4138107 0 0 128 63
-2.8484018,-9.0551,14.920543 0 0 128 63
-0.31115,-3.2765787,-9.107592 0 0 128 63
-0.31115,-6.6999664,-3.9855208 0 0 128 63
7.1566973,-9.0551,8.33159 0 0 128 63
0.7493119,-10.0711,12.004115 0 0 128 63
-2.886655,9.0551,-3.6416194 0 0 128 63
0.91308326,9.047932,7.6291056 0 0 128 63
-0.31115,-1.4546764,4.6351156 0 0 128 63
-2.969822,9.0551,8.164616 0 0 128 63
-8.251945,9.0551,-6.0516324 0 0 128 63
-0.31115,-5.7477036,5.7235374 0 0 128 63
-0.31115,-5.3191075,-7.716053 0 0 128 63
4.8937254,9.0551,6.9569564 0 0 128 63
-0.31115,-0.7320963,1.9542553 0 0 128 63
-4.0420523,-9.0551,13.2898035 0 0 128 63
0.31115,6.8825397,2.9207506 0 0 128 63
0.31115,-0.78986746,13.248364 0 0 128 63
-8.255,-9.760082,-2.4523597 0 0 128 63
6.1734333,10.0711,6.246089 0 0 128 63
-2.543686,10.0711,0.5168315 0 0 128 63
4.755398,-9.0551,8.9164505 0 0 128 63
5.2410088,-10.0711,4.872845 0 0 128 63
-5.2537827,-9.0551,5.2222195 0 0 128 63
-2.6104732,-10.0711,2.9568253 0 0 128 63
-0.31115,7.0254717,-13.30485 0 0 128 63
-2.4302866,9.0551,7.3123097 0 0 128 63
3.2740405,-9.0551,14.532236 0 0 128 63
-0.31115,2.6491601,-10.159914 0 0 128 63
6.14868,10.0711,7.2830334 0 0 128 63
4.0067506,10.0711,11.272874 0 0 128 63
-0.31115,1.6218468,-11.5542555 0 0 128 63
0.31115,3.845938,-10.789037 0 0 128 63
8.255,9.80986,1.0139867 0 0 128 63
8.255,-9.868033,-4.117035 0 0 128 63
5.349106,-9.0551,0.7788799 0 0 128 63
-0.31115,6.8365874,14.793541 0 0 128 63
-0.31115,4.2318664,-13.273923 0 0 128 63
-0.59077483,8.930227,-12.811271 0 0 128 63
-0.31115,-3.7057397,9.227296 0 0 128 63
-4.9982243,-9.0551,-4.8448014 0 0 128 63
0.0025064035,-10.0711,-8.926722 0 0 128 63
0.087178476,-10.0711,-15.023319 0 0 128 63
0.31115,-1.0748056,-2.4148195 0 0 128 63
6.020672,10.0711,9.645791 0 0 128 63
0.31115,3.0360506,1.3977914 0 0 128 63
3.0931747,-10.0711,-10.909181 0 0 128 63
0.31115,-3.2938461,-9.580433 0 0 128 63
-5.0189147,-9.0551,-6.0754423 0 0 128 63
6.1597333,-10.0711,12.593326 0 0 128 63
7.1284604,10.0711,-1.9200407 0 0 128 63
-0.31115,5.2258773,-4.7773595 0 0 128 63
-1.5267938,10.0711,-1.826399 0 0 128 63
4.974514,-10.0711,-9.237824 0 0 128 63
-0.31115,-5.5417275,12.178658 0 0 128 63
0.31115,7.968882,-15.180595 0 0 128 63
-7.657367,-9.0551,-10.81655 0 0 128 63
-0.31115,0.046392698,5.0050635 0 0 128 63
0.31115,-2.836616,-1.8139068 0 0 128 63
3.731835,-10.0711,11.054242 0 0 128 63
-8.058784,-9.0551,-2.2204647 0 0 128 63
5.1000485,10.0711,12.337556 0 0 128 63
0.31115,-0.13031012,7.514955 0 0 128 63
-1.3257786,-10.0711,4.802393 0 0 128 63
4.418306,-9.0551,-7.045778 0 0 128 63
0.31115,-6.0348616,-1.1390814 0 0 128 63
-7.502486,10.0711,2.6110494 0 0 128 63
-0.31115,-7.6995063,-0.09295026 0 0 128 63
0.17747286,10.0711,10.594114 0 0 128 63
-2.8776038,9.0551,-2.7081041 0 0 128 63
-0.31115,-3.4219766,6.6368093 0 0 128 63
-4.314634,-9.0551,-0.073524095 0 0 128 63
-2.780391,-9.0551,-13.388571 0 0 128 63
0.31115,6.728118,-10.023973 0 0 128 63
-0.31115,8.411598,-4.852995 0 0 128 63
5.7602243,-9.0551,-11.204769 0 0 128 63
-0.31115,-1.2510111,-10.306625 0 0 128 63
2.4812713,9.0551,-8.431985 0 0 128 63
2.9629803,-10.0711,7.2063146 0 0 128 63
-5.5588365,-9.0551,-9.646644 0 0 128 63
-7.8392286,-10.0711,-8.785614 0 0 128 63
-1.4548504,-9.0551,-8.654811 0 0 128 63
-8.255,-9.760964,7.6923904 0 0 128 63
-2.4142766,-10.0711,2.8011138 0 0 128 63
2.0164459,-9.322012,15.24 0 0 128 63
-0.31115,7.244578,-13.047533 0 0 128 63
-0.31115,-3.6240454,-8.86602 0 0 128 63
0.31115,4.1671095,13.448811 0 0 128 63
-0.31115,-7.576625,-9.026298 0 0 128 63
-5.5922756,-10.0711,13.987805 0 0 128 63
0.7805893,-9.021579,-1.0952947 0 0 128 63
0.31115,5.263566,10.470155 0 0 128 63
-5.697082,-10.0711,-11.945063 0 0 128 63
-6.282729,9.0551,5.5732336 0 0 128 63
-0.31115,-6.7303505,-7.0950093 0 0 128 63
0.32778373,-8.500752,-13.4906 0 0 128 63
-7.8920736,9.0551,-11.933245 0 0 128 63
-7.493751,10.0711,-9.745242 0 0 128 63
-1.1738931,9.0551,4.4610205 0 0 128 63
-1.9618698,-9.0551,-14.6685095 0 0 128 63
-0.31115,3.2897923,5.347112 0 0 128 63
-8.1946745,-9.0551,-10.705392 0 0 128 63
4.127884,10.0711,-8.081041 0 0 128 63
-2.6012783,-10.0711,-1.2474048 0 0 128 63
0.31115,5.493115,7.5722938 0 0 128 63
-0.31115,-3.9519093,15.059004 0 0 128 63
-6.3178067,9.0551,-2.2439036 0 0 128 63
-0.7108491,-10.0711,-8.934348 0 0 128 63
4.33616,-10.0711,10.314071 0 0 128 63
8.255,-9.571412,-0.79873973 0 0 128 63
1.1975185,-10.0711,8.387387 0 0 128 63
0.31115,-1.8873384,4.98743 0 0 128 63
0.31115,-2.2214704,-3.6327791 0 0 128 63
0.73021275,-10.0711,1.1746482 0 0 128 63
0.31115,4.689297,0.34148714 0 0 128 63
-0.31115,-6.309311,-12.958715 0 0 128 63
1.0229864,-9.0551,8.917221 0 0 128 63
-0.31115,-0.12216467,6.951799 0 0 128 63
0.31115,1.076128,1.4438297 0 0 128 63
-4.616409,-9.0551,-12.21369 0 0 128 63
0.31115,6.3155932,-7.0696235 0 0 128 63
5.20451,-10.0711,0.49224427 0 0 128 63
2.4155543,9.0551,-6.3601236 0 0 128 63
3.8653471,-10.0711,14.19016 0 0 128 63
2.788512,9.0551,-3.5035574 0 0 128 63
-0.31115,4.3067484,-8.558847 0 0 128 63
-6.8690243,10.0711,-5.392981 0 0 128 63
-0.31115,7.9689655,-3.5754318 0 0 128 63
4.701525,10.0711,-9.079119 0 0 128 63
-3.058107,10.0711,-9.543909 0 0 128 63
1.6558559,-10.0711,11.72092 0 0 128 63
-6.615675,10.0711,-10.985639 0 0 128 63
1.9261819,10.0711,-6.7095995 0 0 128 63
5.570543,-10.0711,10.752249 0 0 128 63
5.4877667,-10.0711,8.677886 0 0 128 63
6.956012,-10.0711,11.266404 0 0 128 63
6.43399,-10.0711,-0.43452147 0 0 128 63
-0.31115,4.8688307,-10.475727 0 0 128 63
6.499218,-10.0711,8.5962105 0 0 128 63
-5.3468084,10.0711,6.4585204 0 0 128 63
2.848771,-10.0711,-11.725836 0 0 128 63
6.667569,-9.0551,-6.5641627 0 0 128 63
-1.7315425,-10.0711,4.6310215 0 0 128 63
1.7988311,-10.0711,10.839966 0 0 128 63
0.31115,-4.721546,-6.0588584 0 0 128 63
2.6303787,9.98226,15.24 0 0 128 63
3.7770298,9.0551,-6.853439 0 0 128 63
-0.100966744,10.0711,4.36896 0 0 128 63
0.31115,-4.034664,1.1530893 0 0 128 63
1.7268767,-10.0711,-4.6056967 0 0 128 63
-4.2083516,10.0711,-1.3721435 0 0 128 63
-2.3100457,10.0711,-5.3360105 0 0 128 63
-6.3302164,-9.0551,5.383055 0 0 128 63
-6.509263,-10.0711,-8.663908 0 0 128 63
-5.999752,-10.0711,11.763881 0 0 128 63
0.9665789,9.0551,12.302909 0 0 128 63
2.6572068,9.0551,-10.470265 0 0 128 63
-0.31115,7.621289,14.547761 0 0 128 63
2.3766177,-9.0551,10.821061 0 0 128 63
0.8963879,10.0711,14.030553 0 0 128 63
0.31115,-0.1767428,2.4871533 0 0 128 63
-0.31115,-2.1947925,0.89820826 0 0 128 63
-0.31115,1.541321,-13.026859 0 0 128 63
-2.3379974,-9.0551,8.352149 0 0 128 63
-6.0221047,10.0711,-9.84657 0 0 128 63
0.8182023,-10.0711,6.925522 0 0 128 63
-0.31115,1.3592379,8.497654 0 0 128 63
5.8489194,-9.0551,8.179012 0 0 128 63
0.10331426,10.0711,2.4036162 0 0 128 63
-6.8731503,10.0711,-7.143802 0 0 128 63
1.0940889,10.0711,-13.365596 0 0 128 63
1.7296257,-9.0551,6.8068223 0 0 128 63
4.4951534,10.0711,11.035642 0 0 128 63
-0.31115,-3.999269,-12.94943 0 0 128 63
5.7758913,10.0711,-0.14719085 0 0 128 63
3.3851674,-10.0711,-6.1744947 0 0 128 63
1.2185384,9.0551,-1.4044133 0 0 128 63
0.467499,8.822581,3.4242814 0 0 128 63
0.31115,-1.0123389,-6.0760374 0 0 128 63
-2.784447,-9.0551,12.165183 0 0 128 63
-6.667135,-9.0551,6.3841014 0 0 128 63
0.31115,-7.8841434,-7.221996 0 0 128 63
-0.31115,0.5539498,-14.562608 0 0 128 63
-6.3338766,-10.0711,-4.0889354 0 0 128 63
4.0031114,-10.0711,-3.451897 0 0 128 63
0.31115,6.590489,4.8412857 0 0 128 63
-4.083813,-9.0551,-6.882489 0 0 128 63
7.470229,10.0711,-9.504756 0 0 128 63
-1.9579487,9.0551,5.5254874 0 0 128 63
-0.31115,5.4523916,-6.3982778 0 0 128 63
-0.31115,-2.5001278,10.937947 0 0 128 63
-6.7229214,-9.167337,15.24 0 0 128 63
-0.31115,-6.874082,-11.49822 0 0 128 63
-3.0596538,-9.0551,-15.194315 0 0 128 63
8.255,-9.3306,-2.3910708 0 0 128 63
3.7242932,-9.0551,0.72348416 0 0 128 63
6.3630323,10.0711,-3.3225312 0 0 128 63
-0.31115,-4.872677,-14.473583 0 0 128 63
0.31115,-6.404228,-10.156591 0 0 128 63
-0.31115,-4.6115155,-5.047621 0 0 128 63
8.034251,9.0551,12.254645 0 0 128 63
5.1890745,9.241649,15.24 0 0 128 63
0.30539635,8.117867,-15.24 0 0 128 63
2.1248746,10.0711,-3.9296308 0 0 128 63
-0.31115,3.100367,-5.9209976 0 0 128 63
6.675136,10.0711,-8.43636 0 0 128 63
-0.4249382,8.758885,12.066471 0 0 128 63
3.3187497,-9.0551,5.564845 0 0 128 63
0.31115,4.7909927,12.979239 0 0 128 63
-0.31115,2.263305,-9.405195 0 0 128 63
-0.31115,3.127575,0.7714726 0 0 128 63
3.3571062,9.0551,-5.111652 0 0 128 63
5.244807,10.0711,14.137929 0 0 128 63
-3.0246892,-9.0551,6.9021306 0 0 128 63
-1.3987895,9.692292,15.24 0 0 128 63
0.31115,6.2825265,-8.718303 0 0 128 63
6.533858,9.0551,13.109835 0 0 128 63
0.31115,2.1881595,-8.960078 0 0 128 63
-0.31115,0.12532222,-6.010304 0 0 128 63
-3.6457005,-9.0551,-3.1206949 0 0 128 63
-0.34067118,8.565541,12.154353 0 0 128 63
4.682992,9.0551,5.937368 0 0 128 63
-3.8586872,10.0711,-14.789892 0 0 128 63
3.0874481,-10.0711,-14.448897 0 0 128 63
0.926847,-10.0711,10.882005 0 0 128 63
5.508792,10.0711,-9.660672 0 0 128 63
-6.9346685,-10.0711,-4.0148864 0 0 128 63
0.31115,-0.79396564,-13.9296465 0 0 128 63
5.5093684,10.0711,-13.527429 0 0 128 63
-1.7874132,-10.0711,2.6992664 0 0 128 63
8.255,-9.8213415,5.322171 0 0 128 63
4.6879296,10.0711,-12.327218 0 0 128 63
2.314023,10.0711,10.122378 0 0 128 63
-0.18164706,-10.0711,14.378173 0 0 128 63
6.1336336,10.0711,2.8089285 0 0 128 63
-3.9201183,10.0711,-1.7982486 0 0 128 63
-7.9072785,10.0711,12.294839 0 0 128 63
6.3785033,10.0711,8.431017 0 0 128 63
-2.4458416,10.0711,-7.896458 0 0 128 63
-3.7888334,-10.0711,-7.2066283 0 0 128 63
-0.31115,-6.972428,9.966452 0 0 128 63
8.255,-9.605983,-6.2112417 0 0 128 63
1.9561728,-10.0711,8.9096365 0 0 128 63
7.9015517,10.0711,-0.2051567 0 0 128 63
-4.960191,9.0551,9.024139 0 0 128 63
0.31115,2.9742038,11.940346 0 0 128 63
-6.976066,-10.0711,14.93101 0 0 128 63
6.749431,-9.0551,10.749042 0 0 128 63
-5.2340755,-9.0551,-4.429444 0 0 128 63
-0.31115,2.443602,-0.16694567 0 0 128 63
7.8553476,-10.0711,-7.1941304 0 0 128 63
5.502012,9.0551,1.0813121 0 0 128 63
-2.4735825,10.0711,-6.869715 0 0 128 63
6.0125732,-9.0551,-13.686061 0 0 128 63
-1.0780761,-10.0711,6.953676 0 0 128 63
-2.2980528,10.0711,-7.751895 0 0 128 63
0.31115,4.4492984,13.34415 0 0 128 63
-0.31115,4.0228944,-7.890202 0 0 128 63
-0.31115,3.701437,2.9686654 0 0 128 63
-4.2228465,-9.0551,0.56774527 0 0 128 63
0.25611788,10.0711,9.527949 0 0 128 63
-0.58405256,10.0711,-3.8223624 0 0 128 63
-0.31115,7.2798967,-9.94517 0 0 128 63
-5.488378,9.61451,15.24 0 0 128 63
0.31115,5.001815,2.8352456 0 0 128 63
0.31115,1.943944,-4.907236 0 0 128 63
-0.31115,3.0654671,9.826465 0 0 128 63
2.4226444,-9.0551,4.453059 0 0 128 63
-3.0252972,10.0711,-0.5892575 0 0 128 63
-0.31115,-5.169674,-8.27539 0 0 128 63
7.664928,10.0711,-10.008734 0 0 128 63
-0.5898,8.929576,11.746799 0 0 128 63
-1.1432551,9.0551,-14.075977 0 0 128 63
-5.099576,10.0711,-3.7152903 0 0 128 63
0.54656744,-10.0711,-11.997358 0 0 128 63
-1.3375369,-9.0551,11.160823 0 0 128 63
-2.8794088,9.0551,-0.22244507 0 0 128 63
-0.31115,-4.5245767,5.649659 0 0 128 63
-2.3177965,10.0711,-11.253891 0 0 128 63
0.31115,3.698463,-14.082053 0 0 128 63
-4.681758,-10.0711,-2.7268772 0 0 128 63
0.31115,1.3543959,12.644069 0 0 128 63
0.31115,-8.082389,-12.838312 0 0 128 63
7.5813036,9.0551,8.887699 0 0 128 63
-0.31115,3.6425447,4.310705 0 0 128 63
0.31115,-8.314309,-7.5995045 0 0 128 63
0.31115,-6.980797,9.86575 0 0 128 63
-0.31115,2.225951,14.803402 0 0 128 63
0.31115,5.9210277,14.814289 0 0 128 63
6.244654,9.0551,10.647763 0 0 128 63
-6.1057973,-9.0551,-2.117076 0 0 128 63
0.56645197,-10.0711,-6.373832 0 0 128 63
-0.31115,5.2906914,-11.491245 0 0 128 63
-5.3271146,9.0551,-11.063623 0 0 128 63
-0.31115,-1.660966,-7.9094143 0 0 128 63
7.4786515,10.0711,5.3514113 0 0 128 63
5.1585736,-10.0711,-10.567244 0 0 128 63
-3.7069612,-10.0711,3.2931402 0 0 128 63
5.217241,9.0551,-14.503312 0 0 128 63
8.021945,9.0551,-8.202769 0 0 128 63
-7.155426,9.0551,-4.315182 0 0 128 63
-1.4008288,-10.0711,5.122597 0 0 128 63
7.645102,10.0711,14.134901 0 0 128 63
-0.7997455,9.025389,4.696979 0 0 128 63
-3.119198,9.0551,-5.8469434 0 0 128 63
2.3036852,-9.0551,-0.96075493 0 0 128 63
3.6859374,-9.0551,6.830316 0 0 128 63
6.437835,-10.0711,10.394718 0 0 128 63
7.8933954,9.0551,0.4516977 0 0 128 63
0.31115,-1.5524795,10.29 0 0 128 63
-8.255,-9.923584,4.6191406 0 0 128 63
4.1189985,-9.0551,13.750558 0 0 128 63
0.31115,7.992299,-7.6756835 0 0 128 63
2.2204745,10.0711,-14.542469 0 0 128 63
6.3800592,9.0551,-1.6772687 0 0 128 63
-0.31115,8.309143,-8.113226 0 0 128 63
-3.739609,10.0711,-7.049251 0 0 128 63
-2.3042865,-9.0551,-12.7884245 0 0 128 63
0.31115,-5.716823,4.4674377 0 0 128 63
0.45720655,8.807178,12.338361 0 0 128 63
0.67203873,-8.984529,-1.7872812 0 0 128 63
-2.1623573,-10.0711,-15.194462 0 0 128 63
-0.10812361,-9.9897785,-15.24 0 0 128 63
4.307043,-10.0711,9.639832 0 0 128 63
-0.31115,-6.102033,6.7818456 0 0 128 63
-6.515575,-9.0551,-3.1144102 0 0 128 63
0.4340158,-10.0711,-13.312592 0 0 128 63
-3.121733,-10.0711,-7.3551197 0 0 128 63
3.918885,9.0551,6.183672 0 0 128 63
-0.51091456,10.0711,-6.9197383 0 0 128 63
-0.31115,3.2062063,-10.376271 0 0 128 63
-8.255,-9.75684,-14.915773 0 0 128 63
